# .PCD v0.7 - Point Cloud Data file format
VERSION 0.7
FIELDS x y z rgb
SIZE 4 4 4 4
TYPE F F F F
COUNT 1 1 1 1
WIDTH 1015
HEIGHT 1
VIEWPOINT 0 0 0 1 0 0 0
POINTS 1015
DATA ascii
0.4422721 -0.73748004 0.60999876 1.0786889e-38
0.44726601 -0.73773271 0.60999876 1.0786889e-38
0.45247215 -0.73748392 0.60999876 1.0786889e-38
0.45585474 -0.73739642 0.6099987 1.0786889e-38
0.4032104 -0.73084348 0.60999888 1.0786889e-38
0.40743643 -0.73207903 0.60999888 1.0786889e-38
0.41262877 -0.73257405 0.60999876 1.0786889e-38
0.41825706 -0.73228675 0.60999876 1.0786889e-38
0.42304316 -0.73251188 0.60999876 1.0786889e-38
0.42770877 -0.73248029 0.60999882 1.0786889e-38
0.43241319 -0.73244911 0.60999882 1.0786889e-38
0.43732128 -0.73267782 0.60999876 1.0786889e-38
0.44243759 -0.73240852 0.60999876 1.0786889e-38
0.44743299 -0.73263913 0.60999876 1.0786889e-38
0.45264116 -0.73236668 0.60999876 1.0786889e-38
0.45585474 -0.73277068 0.6099987 1.0786889e-38
0.40259323 -0.72762722 0.60999882 1.0786889e-38
0.40693474 -0.72732377 0.60999882 1.0786889e-38
0.41256878 -0.72756636 0.60999876 1.0786889e-38
0.41793942 -0.72730035 0.60999882 1.0786889e-38
0.42272288 -0.72750413 0.60999876 1.0786889e-38
0.42754728 -0.72770965 0.60999882 1.0786889e-38
0.43257594 -0.72742063 0.60999882 1.0786889e-38
0.43748546 -0.72762764 0.60999876 1.0786889e-38
0.44260359 -0.72733492 0.60999882 1.0786889e-38
0.44760051 -0.72754341 0.60999876 1.0786889e-38
0.45247233 -0.72749007 0.60999876 1.0786889e-38
0.45585465 -0.72737384 0.60999882 1.0786889e-38
0.40229827 -0.72246718 0.60999888 1.0786889e-38
0.40709028 -0.72240746 0.60999882 1.0786889e-38
0.41250774 -0.72255927 0.60999882 1.0786889e-38
0.41809797 -0.72233522 0.60999882 1.0786889e-38
0.4228828 -0.72251785 0.60999876 1.0786889e-38
0.42785558 -0.72245651 0.60999888 1.0786889e-38
0.43273911 -0.72239 0.60999882 1.0786889e-38
0.43765002 -0.72257531 0.60999876 1.0786889e-38
0.44243771 -0.72250146 0.60999876 1.0786889e-38
0.44726601 -0.72242785 0.60999876 1.0786889e-38
0.45230371 -0.7226156 0.60999876 1.0786889e-38
0.45585465 -0.72197717 0.60999882 1.0786889e-38
0.40259323 -0.71733016 0.60999888 1.0786889e-38
0.4072462 -0.71748912 0.60999882 1.0786889e-38
0.41279307 -0.71753705 0.60999876 1.0786889e-38
0.41825709 -0.71736813 0.60999882 1.0786889e-38
0.42304319 -0.71752954 0.60999882 1.0786889e-38
0.42770877 -0.71743572 0.60999888 1.0786889e-38
0.43241319 -0.71734202 0.60999882 1.0786889e-38
0.43732134 -0.71750534 0.60999882 1.0786889e-38
0.44227201 -0.71767014 0.60999882 1.0786889e-38
0.44743294 -0.71733207 0.60999876 1.0786889e-38
0.45247212 -0.71749747 0.60999882 1.0786889e-38
0.45585465 -0.71735138 0.60999882 1.0786889e-38
0.40228432 -0.71241754 0.60999888 1.0786889e-38
0.40693474 -0.71255577 0.60999888 1.0786889e-38
0.4123871 -0.71254629 0.60999882 1.0786889e-38
0.41793948 -0.71238595 0.60999882 1.0786889e-38
0.42272282 -0.71252596 0.60999888 1.0786889e-38
0.42754728 -0.71266735 0.60999882 1.0786889e-38
0.43257588 -0.71231133 0.60999882 1.0786889e-38
0.4374854 -0.71245289 0.60999888 1.0786889e-38
0.44243756 -0.71259576 0.60999882 1.0786889e-38
0.44743314 -0.71248466 0.60999876 1.0786889e-38
0.45264107 -0.71237719 0.60999882 1.0786889e-38
0.45585465 -0.71272558 0.60999882 1.0786889e-38
0.40243855 -0.70751977 0.60999888 1.0786889e-38
0.40709025 -0.70763743 0.60999888 1.0786889e-38
0.41256806 -0.70752823 0.60999882 1.0786889e-38
0.41809803 -0.70741868 0.60999882 1.0786889e-38
0.42288274 -0.70753753 0.60999888 1.0786889e-38
0.42770857 -0.70765746 0.60999882 1.0786889e-38
0.43275252 -0.70728564 0.60985464 1.0786889e-38
0.43764997 -0.7073983 0.60999888 1.0786889e-38
0.44260359 -0.70751929 0.60999882 1.0786889e-38
0.44760045 -0.70764124 0.60999882 1.0786889e-38
0.45247221 -0.70750356 0.60999876 1.0786889e-38
0.45585465 -0.70732886 0.60999882 1.0786889e-38
0.40266904 -0.70282745 0.60969961 1.0786889e-38
0.40724617 -0.70271695 0.60999888 1.0879084e-38
0.41256872 -0.70233333 0.60999882 1.0879084e-38
0.41825706 -0.70244932 0.60999888 1.0879084e-38
0.42304316 -0.70254713 0.60999888 1.0879084e-38
0.42787036 -0.70264566 0.60999882 1.0879084e-38
0.43257606 -0.70248955 0.60999888 1.0879084e-38
0.43732128 -0.70233285 0.60999888 1.0879084e-38
0.44227201 -0.70243174 0.60999882 1.0879084e-38
0.44726595 -0.70253146 0.60999882 1.0879084e-38
0.45230365 -0.70263207 0.60999876 1.0879084e-38
0.45585465 -0.70193213 0.60999882 1.0879084e-38
0.40229824 -0.69746661 0.60999888 1.0879084e-38
0.40694875 -0.69754189 0.60999888 1.0879084e-38
0.41250771 -0.69732761 0.60999882 1.0879084e-38
0.41793936 -0.69747138 0.60999888 1.0879084e-38
0.42272276 -0.69754779 0.60999882 1.0879084e-38
0.42754728 -0.69762492 0.60999888 1.0879084e-38
0.43241319 -0.69770265 0.60999882 1.0879084e-38
0.4374854 -0.69727826 0.60999888 1.0879084e-38
0.44243756 -0.69735515 0.60999882 1.0879084e-38
0.44743294 -0.6974327 0.60999882 1.0879084e-38
0.45247212 -0.69751102 0.60999876 1.0879084e-38
0.45585465 -0.69730639 0.60999882 1.0879084e-38
0.4025932 -0.69232285 0.60999888 1.0879084e-38
0.4072462 -0.69237649 0.60999888 1.0879084e-38
0.41262868 -0.69249588 0.60999894 1.0879084e-38
0.41809791 -0.69250202 0.60999888 1.0879084e-38
0.42288274 -0.69255728 0.60999888 1.0879084e-38
0.42770848 -0.69261301 0.60999888 1.0879084e-38
0.43257588 -0.69266909 0.60999882 1.0879084e-38
0.43748555 -0.69247293 0.60999894 1.0879084e-38
0.44260353 -0.69227642 0.60999888 1.0879084e-38
0.44760042 -0.69233191 0.60999882 1.0879084e-38
0.45264107 -0.69238788 0.60999882 1.0879084e-38
0.45585456 -0.6926806 0.60999888 1.0879084e-38
0.40228438 -0.68741721 0.609999 1.0879084e-38
0.40693474 -0.68745029 0.60999888 1.0879084e-38
0.41256866 -0.68749034 0.60999888 1.0879084e-38
0.41825694 -0.68753064 0.60999888 1.0879084e-38
0.42304316 -0.68756467 0.60999894 1.0879084e-38
0.42787027 -0.68759888 0.609999 1.0879084e-38
0.43273908 -0.68763357 0.60999882 1.0879084e-38
0.43764997 -0.68766844 0.60999888 1.0879084e-38
0.44243768 -0.68744797 0.60999894 1.0879084e-38
0.44743311 -0.68748242 0.60999882 1.0879084e-38
0.45247227 -0.68751711 0.60999894 1.0879084e-38
0.45585456 -0.6880548 0.60999888 1.0879084e-38
0.40243858 -0.68251598 0.60999888 1.0879084e-38
0.40709025 -0.68252838 0.60999888 1.0879084e-38
0.41250771 -0.68248552 0.609999 1.0879084e-38
0.41793934 -0.68255699 0.60999888 1.0879084e-38
0.42272282 -0.68256962 0.60999888 1.0879084e-38
0.42754722 -0.6825825 0.60999906 1.0879084e-38
0.43241319 -0.68259555 0.60999882 1.0879084e-38
0.43732128 -0.68260854 0.609999 1.0879084e-38
0.44227201 -0.68262178 0.60999888 1.0879084e-38
0.44726592 -0.68263519 0.60999882 1.0879084e-38
0.45230359 -0.68264848 0.60999882 1.0879084e-38
0.45585459 -0.68265808 0.60999888 1.0879084e-38
0.40259323 -0.67761266 0.60999894 1.0879084e-38
0.40724617 -0.67760438 0.60999888 1.0879084e-38
0.41262868 -0.67765206 0.60999894 1.0879084e-38
0.41809791 -0.67758554 0.60999888 1.0879084e-38
0.42288271 -0.6775769 0.60999906 1.0879084e-38
0.42770854 -0.67756838 0.60999906 1.0879084e-38
0.43257588 -0.67755985 0.60999882 1.0879084e-38
0.4374854 -0.67755115 0.60999906 1.0879084e-38
0.4424375 -0.67754239 0.60999888 1.0879084e-38
0.44743294 -0.67753351 0.60999888 1.0879084e-38
0.45247203 -0.67752445 0.60999888 1.0879084e-38
0.45585456 -0.67726135 0.60999888 1.0879084e-38
0.40229827 -0.67246604 0.60999888 1.0879084e-38
0.40693468 -0.67268234 0.609999 1.0879084e-38
0.41256863 -0.67264736 0.60999906 1.0879084e-38
0.41825694 -0.67261201 0.60999888 1.0879084e-38
0.4230431 -0.67258227 0.60999906 1.0879084e-38
0.42787027 -0.67255229 0.60999894 1.0879084e-38
0.43273908 -0.67252207 0.60999894 1.0879084e-38
0.43764997 -0.67249155 0.60999894 1.0879084e-38
0.44260353 -0.67246073 0.60999888 1.0879084e-38
0.44760036 -0.67242974 0.60999888 1.0879084e-38
0.45264101 -0.67239845 0.60999882 1.0879084e-38
0.45585456 -0.67263556 0.60999888 1.0879084e-38
0.4025932 -0.6673156 0.609999 1.0879084e-38
0.40723172 -0.66751021 0.60999894 1.0879084e-38
0.41250771 -0.66764331 0.60999906 1.0879084e-38
0.41793936 -0.66764247 0.60999906 1.0879084e-38
0.42272276 -0.66759151 0.60999906 1.0879084e-38
0.42754722 -0.66754019 0.60999906 1.0879084e-38
0.43241316 -0.66748828 0.609999 1.0879084e-38
0.43732128 -0.66743606 0.60999906 1.0879084e-38
0.44227201 -0.66738337 0.60999888 1.0879084e-38
0.44726586 -0.66733009 0.609999 1.0879084e-38
0.45247215 -0.6675306 0.60999888 1.0879084e-38
0.45585456 -0.66800982 0.60999888 1.0879084e-38
0.40228432 -0.66241693 0.60999912 1.0879084e-38
0.40693459 -0.66234475 0.609999 1.0879084e-38
0.41245604 -0.66261297 0.60999906 1.0879084e-38
0.41809791 -0.662669 0.60999912 1.0879084e-38
0.42288271 -0.6625967 0.60999906 1.0879084e-38
0.42770854 -0.66252387 0.60999912 1.0879084e-38
0.43257585 -0.66245043 0.60999906 1.0879084e-38
0.4374854 -0.66237646 0.60999894 1.0879084e-38
0.4424375 -0.66230172 0.60999906 1.0879084e-38
0.44743305 -0.66248155 0.60999894 1.0879084e-38
0.45230356 -0.66266501 0.60999882 1.0879084e-38
0.45585459 -0.66261303 0.60999894 1.0879084e-38
0.40243846 -0.65751213 0.60999912 1.0879084e-38
0.4070901 -0.65741932 0.60999906 1.0879084e-38
0.41268066 -0.65744925 0.60999912 1.0879084e-38
0.418257 -0.65769327 0.60999906 1.0879084e-38
0.4230431 -0.65759981 0.60999906 1.0879084e-38
0.42787027 -0.65750551 0.60999906 1.0879084e-38
0.43273908 -0.65741056 0.609999 1.0879084e-38
0.43765002 -0.65731466 0.60999906 1.0879084e-38
0.44243765 -0.65747553 0.60999906 1.0879084e-38
0.44743285 -0.65763414 0.609999 1.0879084e-38
0.45247203 -0.65753806 0.60999882 1.0879084e-38
0.45585456 -0.65721625 0.609999 1.0879084e-38
0.40259308 -0.65260541 0.60999912 1.0879084e-38
0.40724602 -0.65249187 0.609999 1.0879084e-38
0.41262865 -0.65241778 0.60999912 1.0879084e-38
0.41793934 -0.65272802 0.60999906 1.0879084e-38
0.42272273 -0.65261334 0.60999906 1.0879084e-38
0.42754716 -0.65249771 0.60999912 1.0879084e-38
0.43241316 -0.65238118 0.60999906 1.0879084e-38
0.43732125 -0.65226352 0.60999906 1.0879084e-38
0.44260353 -0.65264505 0.60999906 1.0879084e-38
0.44760036 -0.65252757 0.60999894 1.0879084e-38
0.45264101 -0.65240902 0.60999906 1.0879084e-38
0.45585456 -0.65259051 0.609999 1.0879084e-38
0.48404211 -0.65274644 0.60547018 1.0879084e-38
0.40229815 -0.64746535 0.60999912 1.0879084e-38
0.40693459 -0.64757687 0.60999906 1.0879084e-38
0.41256863 -0.64741433 0.60999912 1.0879084e-38
0.41809791 -0.64775229 0.60999912 1.0879084e-38
0.42288265 -0.64761639 0.60999912 1.0879084e-38
0.42770848 -0.64747941 0.60999912 1.0879084e-38
0.43257585 -0.64734113 0.60999906 1.0879084e-38
0.43748549 -0.64745468 0.60999906 1.0879084e-38
0.44227195 -0.64757341 0.60999906 1.0879084e-38
0.44726592 -0.64743388 0.60999894 1.0879084e-38
0.45230359 -0.64729291 0.60999906 1.0879084e-38
0.45585456 -0.64796478 0.609999 1.0879084e-38
0.40259308 -0.64230829 0.60999912 1.0879084e-38
0.4070901 -0.64264929 0.60999912 1.0879084e-38
0.41250765 -0.64241177 0.60999912 1.0879084e-38
0.41809818 -0.64253163 0.60999912 1.0879084e-38
0.42304301 -0.6426174 0.60999912 1.0879084e-38
0.42787021 -0.64245892 0.60999912 1.0879084e-38
0.43257603 -0.64255661 0.60999912 1.0879084e-38
0.43748531 -0.64264929 0.60999906 1.0879084e-38
0.44243747 -0.6424889 0.60999906 1.0879084e-38
0.44743285 -0.64232707 0.609999 1.0879084e-38
0.45247221 -0.64242005 0.60999912 1.0879084e-38
0.45585459 -0.64256799 0.609999 1.0879084e-38
0.40228429 -0.63741672 0.60999912 1.0879084e-38
0.40709037 -0.63747984 0.60999912 1.0879084e-38
0.41262865 -0.63757396 0.60999912 1.0879084e-38
0.41809788 -0.63731074 0.60999912 1.0879084e-38
0.42272273 -0.63763517 0.60999912 1.0879084e-38
0.42754716 -0.63745534 0.60999912 1.0879084e-38
0.43247226 -0.63762832 0.60979289 1.0879084e-38
0.43764991 -0.63758469 0.60999906 1.0879084e-38
0.4426035 -0.63740224 0.60999906 1.0879084e-38
0.44743299 -0.6374799 0.609999 1.0879084e-38
0.45247203 -0.63755167 0.60999906 1.0879084e-38
0.45585456 -0.63717133 0.609999 1.097128e-38
0.40243849 -0.6325084 0.60999912 1.097128e-38
0.4070901 -0.63231027 0.60999912 1.097128e-38
0.41256866 -0.63257134 0.60999912 1.097128e-38
0.41825691 -0.63233155 0.60999912 1.097128e-38
0.42288265 -0.63263619 0.60999912 1.097128e-38
0.42770848 -0.63243484 0.60999912 1.097128e-38
0.432576 -0.63248372 0.60999912 1.097128e-38
0.43756008 -0.63273406 0.60997844 1.097128e-38
0.44227195 -0.63233507 0.60999912 1.097128e-38
0.44760036 -0.6326254 0.60999906 1.097128e-38
0.45264101 -0.63241971 0.60999906 1.097128e-38
0.45585456 -0.63254553 0.609999 1.097128e-38
0.40259308 -0.62759811 0.60999912 1.097128e-38
0.40724602 -0.62737918 0.60999912 1.097128e-38
0.41250765 -0.62756956 0.60999912 1.097128e-38
0.41793928 -0.6273734 0.60999912 1.097128e-38
0.42304307 -0.62763506 0.60999912 1.097128e-38
0.42787027 -0.6274122 0.60999912 1.097128e-38
0.43257585 -0.62769902 0.60999912 1.097128e-38
0.43748531 -0.62747467 0.60999906 1.097128e-38
0.44243762 -0.62750232 0.60999906 1.097128e-38
0.4472658 -0.62753737 0.60999906 1.097128e-38
0.45230359 -0.62730944 0.60999906 1.097128e-38
0.45585456 -0.62791973 0.609999 1.097128e-38
0.40229815 -0.62246472 0.60999912 1.097128e-38
0.40693459 -0.62247121 0.60999912 1.097128e-38
0.41245598 -0.62254089 0.60999912 1.097128e-38
0.41809782 -0.62239408 0.60999912 1.097128e-38
0.42272267 -0.62265712 0.60999912 1.097128e-38
0.42754713 -0.62241304 0.60999912 1.097128e-38
0.43273902 -0.62265408 0.60999912 1.097128e-38
0.43764991 -0.62240785 0.60999906 1.097128e-38
0.44243747 -0.62267607 0.60999912 1.097128e-38
0.44743282 -0.62242782 0.60999906 1.097128e-38
0.45247215 -0.6224336 0.60999912 1.097128e-38
0.45585454 -0.62252301 0.60999906 1.097128e-38
0.40259308 -0.61730105 0.60999912 1.097128e-38
0.4070901 -0.61754024 0.60999912 1.097128e-38
0.41268057 -0.61736923 0.60999918 1.097128e-38
0.41825685 -0.61741275 0.60999912 1.097128e-38
0.42288265 -0.61765593 0.60999912 1.097128e-38
0.42770845 -0.61739033 0.60999912 1.097128e-38
0.43241316 -0.61763471 0.60999912 1.097128e-38
0.43732119 -0.61736685 0.60999912 1.097128e-38
0.4426035 -0.61758655 0.60999912 1.097128e-38
0.44743299 -0.61758065 0.60999906 1.097128e-38
0.45247203 -0.6175651 0.60999906 1.097128e-38
0.45585454 -0.61712629 0.60999906 1.097128e-38
0.40228423 -0.61241645 0.60999912 1.097128e-38
0.40709037 -0.61237073 0.60999912 1.097128e-38
0.41262859 -0.61233956 0.60999918 1.097128e-38
0.41793925 -0.61245894 0.60999912 1.097128e-38
0.42288291 -0.61241281 0.60999912 1.097128e-38
0.42787021 -0.6123656 0.60999912 1.097128e-38
0.43257585 -0.61258972 0.60999912 1.097128e-38
0.43748528 -0.61229992 0.60999912 1.097128e-38
0.44227189 -0.61252511 0.60999912 1.097128e-38
0.44743311 -0.61247826 0.60999912 1.097128e-38
0.45264092 -0.61243021 0.60999906 1.097128e-38
0.45585454 -0.61250049 0.60999906 1.097128e-38
0.40243846 -0.60750467 0.60999912 1.097128e-38
0.40709025 -0.60744739 0.60999918 1.097128e-38
0.41238695 -0.60752165 0.60999918 1.097128e-38
0.41809782 -0.60747755 0.60999912 1.097128e-38
0.42288271 -0.60741937 0.60999918 1.097128e-38
0.42754713 -0.60737067 0.60999912 1.097128e-38
0.43273902 -0.60754257 0.60999912 1.097128e-38
0.43748546 -0.60749459 0.60999918 1.097128e-38
0.44243747 -0.60743552 0.60999912 1.097128e-38
0.44743299 -0.60737586 0.60999906 1.097128e-38
0.45230347 -0.60732585 0.60999906 1.097128e-38
0.45585454 -0.60787481 0.60999906 1.097128e-38
0.40243873 -0.60235685 0.60999912 1.097128e-38
0.4070901 -0.60277021 0.60999918 1.097128e-38
0.41268054 -0.60252476 0.60999918 1.097128e-38
0.41825685 -0.60249412 0.60999918 1.097128e-38
0.42288262 -0.60267568 0.60999918 1.097128e-38
0.42770845 -0.60234582 0.60999912 1.097128e-38
0.4324131 -0.60252756 0.60999912 1.097128e-38
0.43748558 -0.60243642 0.60999918 1.097128e-38
0.44243759 -0.6026094 0.60999912 1.097128e-38
0.44743282 -0.60252857 0.60999918 1.097128e-38
0.45247215 -0.60244715 0.60999906 1.097128e-38
0.45585454 -0.60247803 0.60999906 1.097128e-38
0.40243846 -0.59720904 0.60999918 1.097128e-38
0.40709037 -0.5976007 0.60999918 1.097128e-38
0.41262847 -0.59749579 0.60999918 1.097128e-38
0.41793925 -0.59754449 0.60999918 1.097128e-38
0.42288291 -0.59743255 0.60999918 1.097128e-38
0.42770863 -0.5975818 0.60999912 1.097128e-38
0.43257579 -0.59748042 0.60999912 1.097128e-38
0.43748546 -0.59737825 0.60999918 1.097128e-38
0.44243774 -0.59752917 0.60999912 1.097128e-38
0.44760028 -0.5974139 0.60999912 1.097128e-38
0.45247197 -0.59757864 0.60999906 1.097128e-38
0.45585454 -0.5970813 0.60999906 1.097128e-38
0.46137846 -0.59923482 0.60659027 1.097128e-38
0.40243858 -0.59255141 0.60999918 1.097128e-38
0.40709004 -0.59243125 0.60999918 1.097128e-38
0.41256851 -0.59249532 0.60999918 1.097128e-38
0.41809788 -0.59256101 0.60999918 1.097128e-38
0.42288277 -0.59243912 0.60999918 1.097128e-38
0.42770866 -0.59256691 0.60999912 1.097128e-38
0.43273896 -0.59243119 0.60999912 1.097128e-38
0.43748528 -0.59257287 0.60999918 1.097128e-38
0.44243756 -0.59244895 0.60999918 1.097128e-38
0.44726577 -0.59233612 0.60999912 1.097128e-38
0.45264092 -0.5924409 0.60999912 1.097128e-38
0.45585451 -0.59245545 0.60999912 1.097128e-38
0.40243867 -0.58764881 0.60999924 1.097128e-38
0.40724596 -0.58749455 0.60999918 1.097128e-38
0.41250759 -0.58749586 0.60999918 1.097128e-38
0.41825685 -0.58757544 0.60999918 1.097128e-38
0.42288262 -0.58769536 0.60999918 1.097128e-38
0.42770839 -0.58730125 0.60999918 1.097128e-38
0.4324131 -0.5874204 0.60999912 1.097128e-38
0.43764988 -0.58750105 0.60999918 1.097128e-38
0.44243741 -0.5876227 0.60999918 1.097128e-38
0.44743294 -0.58747655 0.60999912 1.097128e-38
0.4523035 -0.58734232 0.60999912 1.097128e-38
0.45585451 -0.58782977 0.60999912 1.097128e-38
0.4024384 -0.58250082 0.60999918 1.097128e-38
0.40693459 -0.58259779 0.60999918 1.097128e-38
0.41245598 -0.58246905 0.60999924 1.097128e-38
0.41793919 -0.58263004 0.60999918 1.097128e-38
0.42288291 -0.5824523 0.60999918 1.097128e-38
0.42770854 -0.58253717 0.60999918 1.097128e-38
0.43257576 -0.58237112 0.60999912 1.097128e-38
0.43732113 -0.58247006 0.60999918 1.097128e-38
0.44260344 -0.58252811 0.60999918 1.097128e-38
0.44743276 -0.58262938 0.60999912 1.097128e-38
0.45247206 -0.58246064 0.60999918 1.097128e-38
0.45585448 -0.58243299 0.60999912 1.097128e-38
0.40243867 -0.57735306 0.60999918 1.097128e-38
0.40709004 -0.57766116 0.60999924 1.097128e-38
0.41268057 -0.57728922 0.60999918 1.097128e-38
0.41809779 -0.57764447 0.60999918 1.097128e-38
0.42288271 -0.5774588 0.60999918 1.097128e-38
0.42770866 -0.57752234 0.60999918 1.097128e-38
0.43257597 -0.57758653 0.60999912 1.097128e-38
0.43748528 -0.57739818 0.60999918 1.097128e-38
0.4422718 -0.57747674 0.60999918 1.097128e-38
0.44760028 -0.57751179 0.60999918 1.097128e-38
0.45247188 -0.57759219 0.60999918 1.097128e-38
0.45585451 -0.57703632 0.60999912 1.097128e-38
0.40243858 -0.5724504 0.60999918 1.097128e-38
0.40709031 -0.57249165 0.60999924 1.097128e-38
0.41256824 -0.57245761 0.60999924 1.097128e-38
0.41809809 -0.5724237 0.60999918 1.097128e-38
0.42288256 -0.57271504 0.60999924 1.097128e-38
0.42770854 -0.5725075 0.60999918 1.097128e-38
0.432576 -0.57255006 0.60999912 1.097128e-38
0.43748543 -0.57259285 0.60999918 1.097128e-38
0.44243735 -0.57238209 0.60999918 1.097128e-38
0.44726577 -0.57243979 0.60999918 1.097128e-38
0.45264083 -0.57245147 0.60999918 1.097128e-38
0.45585451 -0.57241052 0.60999912 1.097128e-38
0.4024384 -0.56779277 0.60999924 1.097128e-38
0.4070901 -0.56732213 0.60999924 1.097128e-38
0.41245595 -0.56762761 0.60999924 1.097128e-38
0.41809794 -0.56745148 0.60999918 1.097128e-38
0.42288283 -0.56747192 0.60999924 1.097128e-38
0.42770833 -0.56774342 0.60999918 1.097128e-38
0.43257585 -0.56751359 0.60999918 1.097128e-38
0.43748558 -0.56753469 0.60999918 1.097128e-38
0.44243756 -0.5675559 0.60999918 1.097128e-38
0.44743276 -0.56732225 0.60999918 1.097128e-38
0.45230341 -0.56735867 0.60999918 1.097128e-38
0.45585451 -0.56778473 0.60999912 1.1063476e-38
0.40243861 -0.5626449 0.60999924 1.1063476e-38
0.40724596 -0.56238204 0.60999924 1.1063476e-38
0.41268057 -0.56244481 0.60999924 1.1063476e-38
0.41809782 -0.56272787 0.60999924 1.1063476e-38
0.42288271 -0.56247854 0.60999924 1.1063476e-38
0.42770866 -0.56247789 0.60999918 1.1063476e-38
0.4325757 -0.56272894 0.60999918 1.1063476e-38
0.43748537 -0.5624764 0.60999918 1.1063476e-38
0.44243765 -0.56247574 0.60999918 1.1063476e-38
0.44743288 -0.56247497 0.60999918 1.1063476e-38
0.45247206 -0.56247425 0.60999918 1.1063476e-38
0.45585448 -0.562388 0.60999912 1.1063476e-38
0.40243834 -0.55749714 0.60999924 1.1063476e-38
0.40693456 -0.55749226 0.60999924 1.1063476e-38
0.4126285 -0.55741763 0.60999924 1.1063476e-38
0.41809809 -0.5575071 0.60999918 1.1063476e-38
0.42288256 -0.55773485 0.60999924 1.1063476e-38
0.42770854 -0.55746299 0.60999924 1.1063476e-38
0.432576 -0.5574407 0.60999918 1.1063476e-38
0.43748522 -0.55767119 0.60999918 1.1063476e-38
0.44243753 -0.55739552 0.60999924 1.1063476e-38
0.44743302 -0.55737263 0.60999918 1.1063476e-38
0.45247188 -0.55760574 0.60999918 1.1063476e-38
0.45585451 -0.55699128 0.60999918 1.1063476e-38
0.40243864 -0.55234933 0.60999924 1.1063476e-38
0.40709004 -0.5525521 0.60999924 1.1063476e-38
0.41238692 -0.55261171 0.60999924 1.1063476e-38
0.41809782 -0.55228627 0.60999924 1.1063476e-38
0.42288283 -0.55249172 0.60999924 1.1063476e-38
0.42770833 -0.55269891 0.60999924 1.1063476e-38
0.43257585 -0.55240422 0.60999918 1.1063476e-38
0.43748558 -0.55236 0.60999918 1.1063476e-38
0.44243735 -0.55256927 0.60999924 1.1063476e-38
0.44743288 -0.55227023 0.60999918 1.1063476e-38
0.45247206 -0.55273724 0.60999918 1.1063476e-38
0.45585451 -0.55236548 0.60999924 1.1063476e-38
0.40243846 -0.54744655 0.60999924 1.1063476e-38
0.40709031 -0.54738265 0.60999924 1.1063476e-38
0.41268048 -0.54760033 0.60999924 1.1063476e-38
0.41809797 -0.54756272 0.60999924 1.1063476e-38
0.4228825 -0.5472486 0.60999924 1.1063476e-38
0.42770866 -0.54743338 0.60999924 1.1063476e-38
0.4325757 -0.54761964 0.60999918 1.1063476e-38
0.43748537 -0.54730177 0.60999918 1.1063476e-38
0.44260341 -0.54746962 0.60999924 1.1063476e-38
0.44743276 -0.54742295 0.60999918 1.1063476e-38
0.45247212 -0.54761255 0.60999918 1.1063476e-38
0.45585451 -0.54773974 0.60999924 1.1063476e-38
0.40243834 -0.54278904 0.60999924 1.1063476e-38
0.40709019 -0.54245925 0.60999924 1.1063476e-38
0.41245583 -0.54239714 0.60999924 1.1063476e-38
0.41809809 -0.54259056 0.60999924 1.1063476e-38
0.42288268 -0.54250491 0.60999924 1.1063476e-38
0.42770851 -0.54241848 0.60999924 1.1063476e-38
0.43257606 -0.54233146 0.60999918 1.1063476e-38
0.43748522 -0.54249638 0.60999924 1.1063476e-38
0.4422718 -0.54242843 0.60999924 1.1063476e-38
0.44743294 -0.54257572 0.60999918 1.1063476e-38
0.45247209 -0.5424878 0.60999918 1.1063476e-38
0.45585448 -0.54234302 0.60999924 1.1063476e-38
0.40243864 -0.53764123 0.60999924 1.1063476e-38
0.40709001 -0.53778207 0.6099993 1.1063476e-38
0.4127498 -0.53738236 0.60999924 1.1063476e-38
0.41809779 -0.53736973 0.60999924 1.1063476e-38
0.42288285 -0.53751141 0.60999924 1.1063476e-38
0.42770839 -0.5376544 0.60999924 1.1063476e-38
0.43257585 -0.53729492 0.60999924 1.1063476e-38
0.43748534 -0.53769112 0.60999924 1.1063476e-38
0.44243735 -0.53732872 0.60999924 1.1063476e-38
0.44743299 -0.53747332 0.60999918 1.1063476e-38
0.45247188 -0.53761923 0.60999924 1.1063476e-38
0.45585451 -0.5369463 0.60999924 1.1063476e-38
0.40243834 -0.53249335 0.6099993 1.1063476e-38
0.40709031 -0.53261256 0.6099993 1.1063476e-38
0.41250753 -0.53257984 0.60999924 1.1063476e-38
0.41809797 -0.53264612 0.6099993 1.1063476e-38
0.42288256 -0.53226835 0.60999924 1.1063476e-38
0.42770866 -0.53238881 0.60999924 1.1063476e-38
0.4325757 -0.53251034 0.60999924 1.1063476e-38
0.43748549 -0.53263289 0.60999924 1.1063476e-38
0.44243753 -0.53250247 0.60999924 1.1063476e-38
0.44743285 -0.53237098 0.60999924 1.1063476e-38
0.45247206 -0.53275079 0.60999924 1.1063476e-38
0.45585451 -0.5323205 0.60999924 1.1063476e-38
0.40243864 -0.52734548 0.60999924 1.1063476e-38
0.40709004 -0.52744311 0.6099993 1.1063476e-38
0.4124558 -0.52755558 0.60999924 1.1063476e-38
0.41809809 -0.5276739 0.6099993 1.1063476e-38
0.42288274 -0.52752459 0.60999924 1.1063476e-38
0.42770851 -0.52737397 0.60999924 1.1063476e-38
0.43257582 -0.52772576 0.60999924 1.1063476e-38
0.43748516 -0.52732176 0.60999918 1.1063476e-38
0.44243765 -0.52742237 0.60999924 1.1063476e-38
0.4474327 -0.52752376 0.60999924 1.1063476e-38
0.45247218 -0.5276261 0.60999918 1.1063476e-38
0.45585451 -0.52769476 0.60999924 1.1063476e-38
0.40243852 -0.52244288 0.60999936 1.1063476e-38
0.40709031 -0.5222736 0.6099993 1.1063476e-38
0.41268042 -0.52236474 0.6099993 1.1063476e-38
0.41809779 -0.52245319 0.6099993 1.1063476e-38
0.42288285 -0.52253115 0.60999924 1.1063476e-38
0.42770833 -0.52260989 0.6099993 1.1063476e-38
0.432576 -0.52268928 0.60999924 1.1063476e-38
0.43748537 -0.52251649 0.60999924 1.1063476e-38
0.44243747 -0.52234209 0.60999924 1.1063476e-38
0.44743288 -0.52267653 0.60999924 1.1063476e-38
0.45247206 -0.52250135 0.60999924 1.1063476e-38
0.45585442 -0.52306896 0.60999924 1.1063476e-38
0.40243834 -0.51778531 0.6099993 1.1063476e-38
0.40709019 -0.51735032 0.60999936 1.1063476e-38
0.41256812 -0.51753873 0.60999936 1.1063476e-38
0.41825685 -0.5174576 0.6099993 1.1063476e-38
0.42288256 -0.51728809 0.60999924 1.1063476e-38
0.42770863 -0.5173443 0.60999924 1.1063476e-38
0.4325757 -0.51740104 0.60999924 1.1063476e-38
0.43748549 -0.5174582 0.60999924 1.1063476e-38
0.44243732 -0.51751584 0.60999924 1.1063476e-38
0.44743308 -0.51757413 0.60999924 1.1063476e-38
0.45247179 -0.51763278 0.60999924 1.1063476e-38
0.45585436 -0.51767218 0.6099993 1.1063476e-38
0.40243864 -0.5126375 0.6099993 1.1063476e-38
0.40709004 -0.51267302 0.60999936 1.1063476e-38
0.41245586 -0.51271409 0.60999954 1.1063476e-38
0.41793919 -0.51253206 0.6099993 1.1063476e-38
0.42288271 -0.51254433 0.6099993 1.1063476e-38
0.42770851 -0.5123294 0.60999924 1.1063476e-38
0.43257585 -0.5126164 0.60999924 1.1063476e-38
0.43748537 -0.51239997 0.60999924 1.1063476e-38
0.44243747 -0.51268971 0.60999924 1.1063476e-38
0.44743288 -0.5124718 0.60999924 1.1063476e-38
0.45247194 -0.51276428 0.6099993 1.1063476e-38
0.45585433 -0.51227546 0.6099993 1.1063476e-38
0.4024384 -0.50748962 0.6099993 1.1063476e-38
0.40709031 -0.50750357 0.60999948 1.1063476e-38
0.41268042 -0.50752032 0.60999936 1.1063476e-38
0.41809782 -0.50753653 0.6099993 1.1063476e-38
0.42288285 -0.5075509 0.60999948 1.1063476e-38
0.42770833 -0.50756538 0.6099993 1.1063476e-38
0.432576 -0.50757992 0.60999924 1.1063476e-38
0.43748522 -0.5075947 0.60999924 1.1063476e-38
0.44243762 -0.50760949 0.60999924 1.1063476e-38
0.4474327 -0.50762451 0.6099993 1.1063476e-38
0.45247209 -0.50763953 0.60999924 1.1063476e-38
0.45585433 -0.50764972 0.6099993 1.1063476e-38
0.40243864 -0.50234181 0.6099993 1.1063476e-38
0.40709004 -0.50233406 0.60999936 1.1063476e-38
0.4124558 -0.50232518 0.60999936 1.1063476e-38
0.418098 -0.50231576 0.60999936 1.1063476e-38
0.42288256 -0.50230783 0.60999948 1.1063476e-38
0.4277086 -0.50229985 0.60999924 1.1063476e-38
0.4325757 -0.50229168 0.60999924 1.1063476e-38
0.43748549 -0.50228351 0.60999924 1.1063476e-38
0.44243747 -0.50252932 0.60999924 1.1063476e-38
0.44743285 -0.50277728 0.6099993 1.1063476e-38
0.45247194 -0.50251484 0.6099993 1.1063476e-38
0.45585433 -0.50302392 0.6099993 1.1063476e-38
0.40243843 -0.49743912 0.60999936 1.1063476e-38
0.40709019 -0.49765694 0.60999942 1.1063476e-38
0.41256812 -0.49750128 0.60999948 1.1063476e-38
0.41809788 -0.4973436 0.60999936 1.1063476e-38
0.42288268 -0.49756405 0.60999942 1.1063476e-38
0.42770851 -0.49728501 0.6099993 1.1063476e-38
0.43257582 -0.49750704 0.60999936 1.1063476e-38
0.4374854 -0.49722534 0.60999924 1.1155671e-38
0.44243732 -0.49770316 0.60999924 1.1063476e-38
0.44743299 -0.49767485 0.6099993 1.1063476e-38
0.45247179 -0.49764633 0.6099993 1.1063476e-38
0.45585436 -0.49762723 0.6099993 1.1063476e-38
0.40243831 -0.49278158 0.60999948 1.1155671e-38
0.40709031 -0.49273357 0.60999948 1.1155671e-38
0.41268042 -0.49267593 0.60999954 1.1155671e-38
0.41809773 -0.49261999 0.60999948 1.1155671e-38
0.42288285 -0.49257067 0.60999948 1.1155671e-38
0.4277083 -0.49252081 0.60999936 1.1155671e-38
0.432576 -0.49247065 0.6099993 1.1155671e-38
0.43748516 -0.49242005 0.60999924 1.1155671e-38
0.44243762 -0.49236888 0.60999936 1.1155671e-38
0.44743261 -0.49231735 0.6099993 1.1155671e-38
0.45247194 -0.49277782 0.6099993 1.1155671e-38
0.45585433 -0.4922305 0.6099993 1.1155671e-38
0.40243861 -0.48763373 0.60999948 1.1155671e-38
0.40709004 -0.48756409 0.60999936 1.1155671e-38
0.41245577 -0.48748371 0.60999954 1.1155671e-38
0.418098 -0.48739922 0.60999942 1.1155671e-38
0.42288256 -0.48732758 0.60999936 1.1155671e-38
0.42754689 -0.48748368 0.60999948 1.1155671e-38
0.43257582 -0.48743424 0.60999936 1.1155671e-38
0.43748534 -0.48761469 0.60999924 1.1155671e-38
0.44243741 -0.48728868 0.60999942 1.1155671e-38
0.44743285 -0.48747015 0.60999936 1.1155671e-38
0.45247209 -0.48765314 0.60999924 1.1155671e-38
0.45585442 -0.48760471 0.60999942 1.1155671e-38
0.40243825 -0.48248586 0.60999948 1.1155671e-38
0.40709031 -0.48239458 0.60999948 1.1155671e-38
0.41268042 -0.48228478 0.60999954 1.1155671e-38
0.41809785 -0.482427 0.60999936 1.1155671e-38
0.42288268 -0.48258379 0.60999942 1.1155671e-38
0.42786998 -0.48251349 0.60999948 1.1155671e-38
0.4325757 -0.48264962 0.6099993 1.1155671e-38
0.43748543 -0.48255646 0.60999924 1.1155671e-38
0.44243726 -0.4824625 0.60999948 1.1155671e-38
0.44743291 -0.48236772 0.6099993 1.1155671e-38
0.45247194 -0.48252842 0.60999936 1.1155671e-38
0.45585442 -0.48297894 0.60999942 1.1155671e-38
0.40243861 -0.47733811 0.60999948 1.1155671e-38
0.40709001 -0.47722507 0.60999948 1.1155671e-38
0.41256812 -0.4774628 0.60999948 1.1155671e-38
0.41809773 -0.47770348 0.6099993 1.1155671e-38
0.42288277 -0.47759035 0.60999948 1.1155671e-38
0.42770821 -0.47747636 0.60999948 1.1155671e-38
0.432576 -0.47736138 0.6099993 1.1155671e-38
0.43748525 -0.47749826 0.60999942 1.1155671e-38
0.44243744 -0.47763634 0.60999942 1.1155671e-38
0.44743279 -0.47726542 0.60999936 1.1155671e-38
0.45247179 -0.47765988 0.60999936 1.1155671e-38
0.45585442 -0.47758228 0.60999942 1.1155671e-38
0.40243846 -0.47243541 0.60999942 1.1155671e-38
0.40709013 -0.47254795 0.60999948 1.1155671e-38
0.41245577 -0.47264233 0.60999954 1.1155671e-38
0.418098 -0.47248268 0.6099993 1.1155671e-38
0.42288247 -0.47234732 0.60999954 1.1155671e-38
0.42754689 -0.47244135 0.60999948 1.1155671e-38
0.43257582 -0.47232491 0.60999942 1.1155671e-38
0.43748513 -0.47269297 0.60999948 1.1155671e-38
0.44243756 -0.47255614 0.60999948 1.1155671e-38
0.44743261 -0.47241816 0.6099993 1.1155671e-38
0.45230332 -0.47251457 0.60999948 1.1155671e-38
0.45585442 -0.47218552 0.60999942 1.1155671e-38
0.40243825 -0.46777788 0.60999948 1.1155671e-38
0.40709028 -0.46762455 0.60999954 1.1155671e-38
0.41268042 -0.46744043 0.60999954 1.1155671e-38
0.41809773 -0.46726194 0.60999948 1.1155671e-38
0.42288259 -0.46760356 0.60999942 1.1155671e-38
0.42786998 -0.46746692 0.60999948 1.1155671e-38
0.43257564 -0.46754032 0.60999948 1.1155671e-38
0.43748543 -0.46738183 0.60999948 1.1155671e-38
0.44243744 -0.46747601 0.60999942 1.1155671e-38
0.44743273 -0.46757093 0.60999942 1.1155671e-38
0.45264068 -0.46743113 0.6099993 1.1155671e-38
0.45585442 -0.46755978 0.60999942 1.1155671e-38
0.40243852 -0.46263 0.60999948 1.1155671e-38
0.40709001 -0.46245509 0.60999954 1.1155671e-38
0.41238683 -0.46242726 0.60999954 1.1155671e-38
0.41809785 -0.46253836 0.60999942 1.1155671e-38
0.42288268 -0.46261013 0.60999948 1.1155671e-38
0.42770821 -0.46243191 0.60999948 1.1155671e-38
0.43241292 -0.46248502 0.60999948 1.1155671e-38
0.43748525 -0.46232361 0.60999942 1.1155671e-38
0.44243726 -0.46264982 0.60999948 1.1155671e-38
0.44743297 -0.46246853 0.60999948 1.1155671e-38
0.45247194 -0.462542 0.60999942 1.1155671e-38
0.45585442 -0.46293402 0.60999942 1.1155671e-38
0.40243834 -0.45748234 0.6099993 1.1063476e-38
0.40709031 -0.4572857 0.60999936 1.1063476e-38
0.41262847 -0.45762286 0.60999936 1.1063476e-38
0.41809806 -0.45756617 0.6099993 1.1063476e-38
0.4228825 -0.45736712 0.60999936 1.1063476e-38
0.42770842 -0.45766783 0.60999936 1.1063476e-38
0.43273887 -0.45748633 0.6099993 1.097128e-38
0.43748516 -0.45751834 0.60999936 1.1063476e-38
0.44227171 -0.45755133 0.60999942 1.1063476e-38
0.44743279 -0.4573662 0.60999942 1.1063476e-38
0.45247179 -0.45767349 0.6099993 1.1063476e-38
0.45706969 -0.45682588 0.60999936 1.0786889e-38
0.46311343 -0.45627552 0.60999942 1.0233715e-38
0.46785748 -0.45627493 0.60999942 1.0602497e-38
0.47307843 -0.45606112 0.60999954 1.0325911e-38
0.47775629 -0.45586959 0.60999954 1.0418106e-38
0.48188266 -0.45596346 0.60999948 1.097128e-38
0.48722851 -0.45627362 0.60999966 1.0602497e-38
0.4926241 -0.4560563 0.60999966 1.0325911e-38
0.49806726 -0.45583707 0.60999966 1.0602497e-38
0.50264132 -0.45605361 0.60999966 1.097128e-38
0.50725162 -0.4562723 0.60999972 1.0602497e-38
0.51283085 -0.45605126 0.60999978 1.0325911e-38
0.51783115 -0.45585325 0.60999978 1.0418106e-38
0.52224302 -0.45595023 0.60999984 1.097128e-38
0.52796036 -0.45627102 0.60999978 1.0602497e-38
0.53244376 -0.45609638 0.6099999 1.0418106e-38
0.53712422 -0.45612076 0.6099999 1.0233715e-38
0.5424906 -0.45611975 0.6099999 1.0233715e-38
0.54642367 -0.4559679 0.60999995 1.097128e-38
0.40243876 -0.45233461 0.60999906 1.097128e-38
0.40709025 -0.45236248 0.60999912 1.097128e-38
0.41268063 -0.45259625 0.60999912 1.097128e-38
0.41809782 -0.45234552 0.60999912 1.097128e-38
0.42288277 -0.45262349 0.60999918 1.097128e-38
0.42770872 -0.45265311 0.60999918 1.097128e-38
0.43257576 -0.45243114 0.60999918 1.097128e-38
0.4373211 -0.45244274 0.60999924 1.097128e-38
0.44260329 -0.45250773 0.60999924 1.097128e-38
0.4474327 -0.45251903 0.6099993 1.097128e-38
0.45230332 -0.4525311 0.60999936 1.097128e-38
0.4575555 -0.45232147 0.60999942 1.097128e-38
0.46268374 -0.45260915 0.60999948 1.097128e-38
0.46768481 -0.45262185 0.60999954 1.097128e-38
0.47316432 -0.45251551 0.6097495 1.097128e-38
0.4774628 -0.45234728 0.6099996 1.097128e-38
0.48188248 -0.45254749 0.6099996 1.097128e-38
0.48705 -0.4525601 0.60999966 1.097128e-38
0.49262375 -0.4523443 0.60999966 1.097128e-38
0.49806774 -0.45237446 0.60999966 1.097128e-38
0.50251007 -0.4524501 0.60999966 1.097128e-38
0.5072521 -0.45278323 0.60999972 1.097128e-38
0.5128305 -0.45227656 0.60999972 1.097128e-38
0.51751739 -0.45221135 0.60999972 1.097128e-38
0.52224302 -0.45268959 0.60999978 1.097128e-38
0.5279609 -0.45272219 0.60999978 1.097128e-38
0.53276545 -0.45238447 0.6099999 1.097128e-38
0.53780478 -0.45233831 0.60999995 1.097128e-38
0.5424906 -0.45280525 0.6099999 1.097128e-38
0.54642367 -0.45264292 0.60999995 1.097128e-38
0.40243864 -0.44743198 0.609999 1.097128e-38
0.4070901 -0.44768533 0.60999912 1.097128e-38
0.41245598 -0.4474121 0.60999912 1.097128e-38
0.41809803 -0.44762197 0.60999912 1.097128e-38
0.42288291 -0.44763002 0.60999918 1.097128e-38
0.42770839 -0.44738752 0.60999918 1.097128e-38
0.43257585 -0.4476465 0.60999918 1.097128e-38
0.43764982 -0.44741946 0.60999924 1.097128e-38
0.44243726 -0.44740924 0.60999924 1.097128e-38
0.44743285 -0.44767174 0.6099993 1.097128e-38
0.45264071 -0.44744176 0.6099993 1.097128e-38
0.45755535 -0.44743156 0.60999948 1.097128e-38
0.46268395 -0.44769764 0.60999942 1.097128e-38
0.46803126 -0.4474647 0.60999948 1.097128e-38
0.47307792 -0.44745451 0.60999954 1.097128e-38
0.4774628 -0.44763517 0.6099996 1.097128e-38
0.48188263 -0.44755501 0.6099996 1.097128e-38
0.48740807 -0.4473176 0.6099996 1.097128e-38
0.49262375 -0.44757164 0.60999966 1.097128e-38
0.49806774 -0.44758007 0.60999966 1.097128e-38
0.50264126 -0.44723108 0.60999966 1.097128e-38
0.50706708 -0.44766599 0.60999972 1.097128e-38
0.5128305 -0.44742319 0.60999972 1.097128e-38
0.51751739 -0.4473393 0.60999972 1.097128e-38
0.52224284 -0.44752702 0.60999978 1.097128e-38
0.5279609 -0.44780838 0.60999978 1.097128e-38
0.53276545 -0.4474515 0.6099999 1.097128e-38
0.53761017 -0.4470911 0.6099999 1.097128e-38
0.5424906 -0.44783345 0.6099999 1.097128e-38
0.54642367 -0.44765541 0.60999995 1.097128e-38
0.66848254 -0.44750094 0.60774314 1.0879084e-38
0.40243849 -0.44277444 0.609999 1.097128e-38
0.40709037 -0.44251582 0.60999912 1.097128e-38
0.41265669 -0.44223446 0.60990983 1.097128e-38
0.41809815 -0.44264975 0.60999918 1.097128e-38
0.42288262 -0.44238701 0.60999918 1.097128e-38
0.42770854 -0.44262344 0.60999918 1.097128e-38
0.43257606 -0.44261009 0.60999918 1.097128e-38
0.43748522 -0.44234371 0.60999924 1.097128e-38
0.44243744 -0.44258302 0.60999924 1.097128e-38
0.44743302 -0.44256938 0.60999924 1.097128e-38
0.45247194 -0.44255558 0.60999942 1.097128e-38
0.4575555 -0.4425416 0.60999942 1.097128e-38
0.46268407 -0.44252759 0.60999948 1.097128e-38
0.46785796 -0.44251341 0.60999942 1.097128e-38
0.4730781 -0.4424991 0.60999954 1.097128e-38
0.47733709 -0.44253734 0.6099996 1.097128e-38
0.48170528 -0.44254589 0.6099996 1.097128e-38
0.48722899 -0.44228435 0.60999966 1.097128e-38
0.49262357 -0.44253388 0.60999966 1.097128e-38
0.49806774 -0.44278577 0.60999966 1.097128e-38
0.50264126 -0.44241843 0.60999966 1.097128e-38
0.50743735 -0.44233376 0.60999972 1.097128e-38
0.5128305 -0.44256985 0.60999972 1.097128e-38
0.51751739 -0.4424673 0.60999972 1.097128e-38
0.52224296 -0.44236434 0.60999978 1.097128e-38
0.52796096 -0.4428947 0.60999978 1.097128e-38
0.53276539 -0.44251859 0.6099999 1.097128e-38
0.53761023 -0.44213882 0.60999995 1.097128e-38
0.54249054 -0.44286168 0.6099999 1.097128e-38
0.54642367 -0.44266793 0.60999995 1.097128e-38
0.40243876 -0.43762654 0.60999906 1.097128e-38
0.4070901 -0.43734631 0.60999912 1.097128e-38
0.41274989 -0.4375765 0.60999912 1.097128e-38
0.41809788 -0.43742901 0.60999918 1.097128e-38
0.42288271 -0.43764329 0.60999918 1.097128e-38
0.42770872 -0.4376086 0.60999918 1.097128e-38
0.43257576 -0.4373219 0.60999918 1.097128e-38
0.43748537 -0.43753844 0.60999924 1.097128e-38
0.44243756 -0.43750286 0.60999924 1.097128e-38
0.44743285 -0.43746704 0.6099993 1.097128e-38
0.45247179 -0.4376871 0.6099993 1.097128e-38
0.45738539 -0.43763608 0.60999948 1.097128e-38
0.46268389 -0.43735754 0.60999942 1.097128e-38
0.46785775 -0.43758011 0.60999948 1.097128e-38
0.4729034 -0.43752798 0.60999954 1.097128e-38
0.47746286 -0.43742633 0.6099996 1.097128e-38
0.4820601 -0.43732396 0.6099996 1.097128e-38
0.48722893 -0.43753326 0.60999966 1.097128e-38
0.49262375 -0.43749616 0.60999966 1.097128e-38
0.49788556 -0.43770885 0.60999966 1.097128e-38
0.50264126 -0.43760583 0.60999966 1.097128e-38
0.50725216 -0.43721655 0.60999972 1.097128e-38
0.51283038 -0.43744698 0.60999972 1.097128e-38
0.51751739 -0.43759525 0.60999972 1.097128e-38
0.52224296 -0.43747345 0.60999978 1.097128e-38
0.52776957 -0.43769136 0.60999978 1.097128e-38
0.53276539 -0.43758568 0.6099999 1.097128e-38
0.53761023 -0.43718657 0.6099999 1.097128e-38
0.54249054 -0.4378899 0.6099999 1.097128e-38
0.54642361 -0.43768039 0.60999995 1.097128e-38
0.6341089 -0.43787086 0.60663015 1.0879084e-38
0.40243849 -0.43247882 0.60999906 1.097128e-38
0.40693459 -0.43240881 0.60999912 1.097128e-38
0.41245589 -0.43257067 0.60999912 1.097128e-38
0.41793928 -0.43244249 0.60999912 1.097128e-38
0.42288285 -0.43264982 0.60999912 1.097128e-38
0.42770839 -0.43234301 0.60999918 1.097128e-38
0.43257591 -0.43253723 0.60999918 1.097128e-38
0.43748552 -0.43248016 0.60999924 1.097128e-38
0.44243744 -0.43242267 0.60999924 1.097128e-38
0.4474327 -0.43261975 0.6099993 1.097128e-38
0.45230332 -0.43254757 0.6099993 1.097128e-38
0.45772576 -0.43252 0.60999948 1.097128e-38
0.46268377 -0.432446 0.60999948 1.097128e-38
0.4678579 -0.43264669 0.60999942 1.097128e-38
0.47325301 -0.43234333 0.6099996 1.097128e-38
0.47746286 -0.43271425 0.6099996 1.097128e-38
0.48188263 -0.43231487 0.6099996 1.097128e-38
0.48722878 -0.43251824 0.60999966 1.097128e-38
0.49262375 -0.43272352 0.60999966 1.097128e-38
0.49825016 -0.43241411 0.60999966 1.097128e-38
0.50264126 -0.43279323 0.60999966 1.097128e-38
0.50725216 -0.43238553 0.60999972 1.097128e-38
0.5128305 -0.43232399 0.60999972 1.097128e-38
0.51751739 -0.43272316 0.60999972 1.097128e-38
0.52224302 -0.43258253 0.60999984 1.097128e-38
0.5279609 -0.43252203 0.60999978 1.097128e-38
0.53276539 -0.43265271 0.6099999 1.097128e-38
0.53761023 -0.43223423 0.60999995 1.097128e-38
0.54249054 -0.43291816 0.6099999 1.097128e-38
0.54642367 -0.43269292 0.60999995 1.097128e-38
0.40243876 -0.42733097 0.60999912 1.097128e-38
0.40724602 -0.42751384 0.60999912 1.097128e-38
0.41250765 -0.42754418 0.60999912 1.097128e-38
0.41825691 -0.427499 0.60999918 1.097128e-38
0.42288262 -0.42740679 0.60999912 1.097128e-38
0.42770854 -0.42757893 0.60999918 1.097128e-38
0.43257606 -0.42750081 0.60999918 1.097128e-38
0.43748534 -0.42742196 0.60999918 1.097128e-38
0.44243726 -0.42759651 0.60999924 1.097128e-38
0.44726568 -0.42750341 0.6099993 1.097128e-38
0.45264071 -0.42745242 0.6099993 1.097128e-38
0.45755535 -0.42735714 0.60999948 1.097128e-38
0.46268395 -0.42753446 0.60999948 1.097128e-38
0.46768475 -0.42769909 0.60999948 1.097128e-38
0.4730781 -0.42737222 0.60999948 1.097128e-38
0.47758865 -0.42760107 0.6099996 1.097128e-38
0.48188263 -0.42758515 0.60999954 1.097128e-38
0.48722893 -0.42750323 0.6099996 1.097128e-38
0.49244317 -0.42767119 0.60999966 1.097128e-38
0.49806774 -0.42733726 0.60999966 1.097128e-38
0.50277245 -0.42757088 0.60999966 1.097128e-38
0.50725216 -0.42755446 0.60999972 1.097128e-38
0.51304257 -0.42757264 0.60954356 1.097128e-38
0.51738298 -0.42745394 0.60999972 1.097128e-38
0.52224296 -0.42769161 0.60999978 1.097128e-38
0.52815253 -0.42735019 0.60999978 1.097128e-38
0.53276539 -0.42771974 0.6099999 1.097128e-38
0.53761023 -0.42728198 0.6099999 1.097128e-38
0.54249054 -0.42794633 0.6099999 1.097128e-38
0.54642367 -0.42770544 0.60999995 1.097128e-38
0.67982304 -0.4280895 0.60598522 1.097128e-38
0.40243864 -0.42242825 0.609999 1.097128e-38
0.4070901 -0.42257637 0.60999912 1.097128e-38
0.41256863 -0.42254502 0.60999912 1.097128e-38
0.41809788 -0.42251244 0.60999918 1.097128e-38
0.42272267 -0.42240039 0.60999918 1.097128e-38
0.42770872 -0.42256415 0.60999918 1.097128e-38
0.43257591 -0.42246437 0.60999918 1.097128e-38
0.43748522 -0.42261666 0.60999924 1.097128e-38
0.44227177 -0.42250308 0.60999924 1.097128e-38
0.44760013 -0.42242903 0.6099993 1.097128e-38
0.45247179 -0.42231292 0.6099993 1.097128e-38
0.4575555 -0.42246726 0.60999942 1.097128e-38
0.46251231 -0.42260948 0.60999948 1.097128e-38
0.46803123 -0.42253461 0.60999954 1.097128e-38
0.47307795 -0.42241687 0.60999954 1.097128e-38
0.47746286 -0.42250419 0.6099996 1.097128e-38
0.48188248 -0.42259264 0.6099996 1.097128e-38
0.48722899 -0.42275217 0.6099996 1.097128e-38
0.49280447 -0.42239743 0.60999966 1.097128e-38
0.49806774 -0.4225429 0.60999966 1.097128e-38
0.50264126 -0.42236522 0.60999966 1.097128e-38
0.50725192 -0.42245501 0.60999972 1.097128e-38
0.5128305 -0.42261735 0.60999972 1.097128e-38
0.51751739 -0.42216769 0.60999972 1.097128e-38
0.52224308 -0.42280069 0.60999984 1.097128e-38
0.5279609 -0.42214772 0.60999972 1.097128e-38
0.53276545 -0.4227868 0.6099999 1.097128e-38
0.53761023 -0.42232963 0.6099999 1.097128e-38
0.54263067 -0.42255071 0.60999995 1.097128e-38
0.54741216 -0.42251453 0.60999995 1.097128e-38
0.40243855 -0.41777071 0.60999906 1.097128e-38
0.40709037 -0.41740686 0.60999906 1.097128e-38
0.41262865 -0.41754487 0.60999912 1.097128e-38
0.41793928 -0.41752806 0.60999918 1.097128e-38
0.42304301 -0.41743287 0.60999918 1.097128e-38
0.42770839 -0.4172985 0.60999918 1.097128e-38
0.43257576 -0.41767979 0.60999918 1.097128e-38
0.43732104 -0.41754603 0.60999918 1.097128e-38
0.44260329 -0.41744933 0.60999924 1.097128e-38
0.44743267 -0.41731268 0.6099993 1.097128e-38
0.45247194 -0.41744444 0.60999936 1.097128e-38
0.45738539 -0.41756469 0.60999942 1.097128e-38
0.46285573 -0.41746634 0.60999948 1.097128e-38
0.4678579 -0.41758698 0.60999942 1.097128e-38
0.4730781 -0.41746151 0.60999948 1.097128e-38
0.47733709 -0.417409 0.6099996 1.097128e-38
0.48188263 -0.41760015 0.60999954 1.097128e-38
0.48704997 -0.41772419 0.6099996 1.097128e-38
0.49262375 -0.41734511 0.60999966 1.097128e-38
0.49806756 -0.4174822 0.60999966 1.097128e-38
0.50264126 -0.41755262 0.60999966 1.097128e-38
0.50725216 -0.4173556 0.60999972 1.097128e-38
0.5128305 -0.41776407 0.60999972 1.097128e-38
0.51751739 -0.41729569 0.60999972 1.097128e-38
0.52205342 -0.41762471 0.60999978 1.097128e-38
0.5279609 -0.41723397 0.60999978 1.097128e-38
0.53276539 -0.41785392 0.6099999 1.097128e-38
0.53761017 -0.41737735 0.60999995 1.097128e-38
0.54249054 -0.4171735 0.6099999 1.097128e-38
0.54741216 -0.41752303 0.60999995 1.097128e-38
0.40243876 -0.4126229 0.60999906 1.097128e-38
0.4070901 -0.41223741 0.60999906 1.097128e-38
0.41268066 -0.41251633 0.60999912 1.097128e-38
0.41825691 -0.41258031 0.60999918 1.097128e-38
0.42288262 -0.41242653 0.60999918 1.097128e-38
0.42770851 -0.41253445 0.60999918 1.097128e-38
0.43241301 -0.41263166 0.60999918 1.097128e-38
0.43764979 -0.41251269 0.60999918 1.097128e-38
0.44243732 -0.4123559 0.60999924 1.097128e-38
0.44743285 -0.41246545 0.6099993 1.097128e-38
0.45230332 -0.41256404 0.6099993 1.097128e-38
0.45772576 -0.41244268 0.60999948 1.097128e-38
0.46268389 -0.4125413 0.60999948 1.097128e-38
0.46785775 -0.41265368 0.60999948 1.097128e-38
0.4729034 -0.41249409 0.60999954 1.097128e-38
0.47746286 -0.41229534 0.6099996 1.097128e-38
0.48170528 -0.41259545 0.6099996 1.097128e-38
0.48740807 -0.41247115 0.60999966 1.097128e-38
0.49262375 -0.41257253 0.60999966 1.097128e-38
0.49806774 -0.41242144 0.60999966 1.097128e-38
0.50251007 -0.41234922 0.60999966 1.097128e-38
0.5072521 -0.41252455 0.60999972 1.097128e-38
0.51264381 -0.41262859 0.60999972 1.097128e-38
0.51751739 -0.41242361 0.60999972 1.097128e-38
0.52224302 -0.41247627 0.60999984 1.097128e-38
0.5279609 -0.41232023 0.60999978 1.097128e-38
0.53276539 -0.41292095 0.6099999 1.097128e-38
0.53761017 -0.41242507 0.60999995 1.097128e-38
0.5424906 -0.41220167 0.6099999 1.097128e-38
0.54741216 -0.41253164 0.60999995 1.097128e-38
0.40243849 -0.40747508 0.60999906 1.097128e-38
0.40709025 -0.4075602 0.60999906 1.097128e-38
0.41245601 -0.40734026 0.60999912 1.097128e-38
0.41809788 -0.40759593 0.60999918 1.097128e-38
0.42272267 -0.4074223 0.60999918 1.097128e-38
0.42770863 -0.40751961 0.60999918 1.097128e-38
0.43273893 -0.40761858 0.60999918 1.097128e-38
0.43748516 -0.40744203 0.60999918 1.097128e-38
0.44243747 -0.40752974 0.60999924 1.097128e-38
0.44726568 -0.40760714 0.6099993 1.097128e-38
0.45264071 -0.40746301 0.6099993 1.097128e-38
0.4575555 -0.40754014 0.60999942 1.097128e-38
0.46268377 -0.40762982 0.60999948 1.097128e-38
0.46768475 -0.40744939 0.60999954 1.097128e-38
0.47325301 -0.40730205 0.60999954 1.097128e-38
0.47746286 -0.40758324 0.6099996 1.097128e-38
0.48206013 -0.40736461 0.6099996 1.097128e-38
0.48722899 -0.40744317 0.6099996 1.097128e-38
0.49262357 -0.40753475 0.60999966 1.097128e-38
0.49806771 -0.40762708 0.60999966 1.097128e-38
0.50264126 -0.40712586 0.60999966 1.097128e-38
0.5072521 -0.40769351 0.60999972 1.097128e-38
0.5128305 -0.40751895 0.60999972 1.097128e-38
0.51751739 -0.40755162 0.60999972 1.097128e-38
0.52224302 -0.40758535 0.60999984 1.097128e-38
0.52796096 -0.40740648 0.60999978 1.097128e-38
0.53290325 -0.40756583 0.60999995 1.097128e-38
0.53761023 -0.40747279 0.6099999 1.097128e-38
0.54249054 -0.4072299 0.6099999 1.097128e-38
0.54741216 -0.4075402 0.60999995 1.097128e-38
0.40228432 -0.40256238 0.609999 1.097128e-38
0.40709037 -0.40263683 0.60999906 1.097128e-38
0.41256833 -0.40250683 0.60999912 1.097128e-38
0.41793928 -0.40261358 0.60999912 1.097128e-38
0.42304301 -0.4024505 0.60999918 1.097128e-38
0.42770854 -0.40250477 0.60999918 1.097128e-38
0.43257576 -0.40257049 0.60999918 1.097128e-38
0.43732104 -0.40237355 0.60999918 1.097128e-38
0.44243762 -0.40244952 0.60999924 1.097128e-38
0.44760019 -0.40252694 0.6099993 1.097128e-38
0.45247179 -0.40232649 0.6099993 1.097128e-38
0.45755535 -0.40265021 0.60999948 1.097128e-38
0.46251231 -0.40244928 0.60999948 1.097128e-38
0.46803123 -0.4022789 0.60999954 1.097128e-38
0.4730781 -0.40233457 0.60999948 1.097128e-38
0.47758865 -0.40246731 0.6099996 1.097128e-38
